1955600.000 -431643.854 4114.416
1952500.000 -482217.056 4665.219
1940300.000 -466866.219 4357.612
1956200.000 -489697.958 4664.308
1951100.000 -489856.464 4727.209
1947100.000 -488937.459 4743.596
1955300.000 -473851.436 4577.203
1780300.000 -199066.607 6103.860
1790300.000 -199417.530 5990.780
1800900.000 -199785.974 5768.873
1808900.000 -200066.677 5580.106
1818200.000 -200391.220 15065.189
1827300.000 -200709.166 5367.977
1837400.000 -201059.981 14817.809
1846100.000 -201364.732 5103.651
1854500.000 -201547.249 14581.344
1864800.000 -201904.577 4794.558
1873200.000 -202200.505 14279.405
1884000.000 -202577.516 4634.975
1891500.000 -202838.339 4599.747
1901600.000 -203191.197 4536.582
1912100.000 -203554.989 4435.576
1921500.000 -203885.886 13908.969
1930500.000 -204087.977 4199.004
1938500.000 -204366.249 13690.821
1948000.000 -204697.089 3983.516
1958300.000 -205056.388 3867.062
1790200.000 -207879.548 15512.140
1800800.000 -208247.993 5791.913
1808700.000 -208526.502 15198.134
1818100.000 -208853.239 5493.014
1827200.000 -209171.184 5367.472
1837200.000 -209408.551 5224.659
1845900.000 -209713.302 14693.726
1854300.000 -210007.074 4984.370
1864600.000 -210366.595 14387.729
1873100.000 -210660.331 14230.096
1883900.000 -211039.534 14119.647
1891400.000 -211300.357 4490.906
1901500.000 -211653.215 4311.668
1911900.000 -212017.006 4189.749
1921400.000 -212236.648 13780.719
1930400.000 -212549.995 13666.093
1947900.000 -213159.106 13456.063
1958100.000 -213516.214 13349.393
1938400.000 -212828.266 3971.275
1966700.000 -213705.086 3667.186
1973400.000 -44288.686 2964.246
2178800.000 -869837.527 12787.548
2269600.000 -445367.712 3173.585
2255700.000 -457137.995 3101.870
2270500.000 -449076.325 3165.236
2274300.000 -447870.238 12757.970
2271400.000 -452782.751 3091.684
2273500.000 -444277.254 12765.978
2276000.000 -455058.391 3024.575
2272100.000 -455926.339 3035.174
2275200.000 -451576.664 3101.407
2271800.000 -437091.286 12781.996
2267900.000 -437957.044 12783.620
2268700.000 -441438.773 3182.321
2106900.000 -582282.780 12437.385
2119400.000 -580602.232 2801.550
2152400.000 -575959.125 3015.490
2110300.000 -581842.492 2818.473
2129000.000 -579263.825 2746.718
2123000.000 -580057.243 2772.483
2113300.000 -581393.448 2795.188
2125900.000 -579715.069 12342.499
2116400.000 -580942.213 12385.937
2144400.000 -577127.583 3020.023
2147900.000 -576582.575 12683.741
2135200.000 -578365.708 2717.844
2131900.000 -578808.203 12338.211
2315500.000 -457879.616 2647.346
1959200.000 -506399.946 14392.209
1970600.000 -506240.167 4641.870
1966900.000 -496754.482 4619.741
1971400.000 -500923.983 4726.313
1973600.000 -500998.460 4741.531
1975200.000 -502279.226 4726.756
1977000.000 -488086.670 4623.146
1972400.000 -486476.059 4594.627
1967300.000 -490421.663 14112.459
1962200.000 -463398.710 14003.954
1958900.000 -489680.903 4570.351
1962600.000 -488030.060 4431.370
1969400.000 -433905.893 3990.392
1965400.000 -431874.346 3986.454
2668100.000 -815109.618 2609.908
2664300.000 -815090.049 2553.519
2660800.000 -817083.989 12077.607
2661900.000 -818237.980 2491.833
2663800.000 -815851.398 2539.266
2643600.000 -794209.108 12238.031
2663900.000 -834902.360 2541.890
2656700.000 -838549.927 12198.352
2669700.000 -838556.257 2575.271
2633500.000 -863923.140 12229.019
2638700.000 -863436.613 2562.925
2641600.000 -863314.417 2519.860
2646400.000 -862476.666 12127.876
2627200.000 -865707.657 2549.672
2619400.000 -867444.182 11947.258
2655800.000 -853000.139 2944.954
2656600.000 -842334.816 12247.058
2706000.000 -403836.561 11927.382
2532300.000 -428438.095 2754.811
2634800.000 -413953.321 11842.761
2541200.000 -427186.042 2611.401
2747900.000 -397938.751 2576.151
2752000.000 -406546.775 2620.946
2569600.000 -423159.283 2465.837
2763000.000 -395789.438 2562.514
2604600.000 -418248.830 11874.128
2719900.000 -401866.310 12029.687
2583800.000 -421204.735 11835.504
2556600.000 -434182.264 2588.406
2784400.000 -401990.556 12270.391
2650600.000 -411717.129 11821.263
2620400.000 -425148.839 12010.407
2534200.000 -437412.785 12160.979
2555400.000 -425229.404 12028.805
2769300.000 -404026.509 12214.887
2632200.000 -423551.910 2238.735
2599100.000 -428194.261 12001.373
2723800.000 -410470.001 2298.091
2778400.000 -393539.710 2484.432
2704500.000 -413251.918 2098.200
2546400.000 -435720.108 12124.476
2620800.000 -415914.579 2248.880
2570800.000 -432225.576 12119.890
2585000.000 -430157.586 2454.690
2734300.000 -399804.374 2755.525
2680300.000 -407510.754 2084.275
2665400.000 -409555.068 2132.983
2404600.000 -503641.313 2634.903
2408900.000 -522393.625 12237.206
2402400.000 -493985.923 12166.135
2406600.000 -512847.309 12222.268
2665000.000 -305949.452 2461.369
2669500.000 -307888.729 2486.257
2674100.000 -309273.900 2400.632
2678700.000 -310770.323 2314.245
2682400.000 -312011.524 2250.445
2691500.000 -315333.756 11778.253
2699800.000 -317962.271 2211.006
2708000.000 -320917.998 11795.465
2716500.000 -323664.276 11811.413
2725300.000 -326977.717 11692.659
2715600.000 -310379.012 2138.578
2685200.000 -299633.682 2161.619
2662600.000 -291385.842 11893.666
2640200.000 -283366.939 2365.055
2634500.000 -306115.595 2908.098
2636600.000 -304961.568 2907.608
2637600.000 -303216.365 12484.620
2637000.000 -301523.532 2909.656
2635300.000 -300908.365 2892.003
2633000.000 -300938.924 2679.517
2631700.000 -304793.632 2660.226
2704700.000 -353555.381 2302.259
2768700.000 -844218.683 12525.526
2706900.000 -865132.533 3137.390
2717800.000 -864842.091 3249.583
2701200.000 -867499.596 3297.831
2695000.000 -867504.114 12859.380
2687800.000 -867925.306 3378.217
2797400.000 -400100.811 12276.584
2796100.000 -391034.591 2534.058
2830300.000 -398456.522 2395.361
2816800.000 -871951.923 2511.730
2825200.000 -867677.937 2474.875
2824600.000 -864538.805 2521.878
2796800.000 -854328.653 2677.584
2786700.000 -841949.160 2700.892
2779900.000 -842937.676 2729.982
2773000.000 -843701.491 2846.322
1975500.000 -205656.625 3683.712
1975400.000 -214118.642 3579.605
1994300.000 -207092.533 3554.473
2003100.000 -207176.648 3492.900
2010900.000 -207223.515 3441.254
2020000.000 -207318.545 12962.729
2028800.000 -207513.864 3233.597
2037300.000 -207700.407 3099.136
2045700.000 -207993.809 3078.685
1993400.000 -214747.285 3502.170
2009900.000 -215209.848 12939.033
2019700.000 -215551.481 12886.325
2028200.000 -215735.851 3279.238
2036600.000 -216031.461 3164.602
1979900.000 -42177.939 3027.371
2781800.000 75184.539 12139.419
2786800.000 73005.433 2529.709
2783600.000 80023.163 12141.001
2789200.000 78046.962 12140.047
2794200.000 75979.121 1180.633
2796000.000 81042.441 1315.841
2798200.000 86313.024 9772.589
2800200.000 91256.374 1346.984
2795100.000 93101.696 12128.984
2789700.000 95071.353 12122.384
2796700.000 98171.553 12118.023
2802300.000 96306.625 2383.968
2795800.000 110232.986 2540.222
2798800.000 103221.801 12100.375
2793800.000 105178.381 12086.692
2791700.000 100125.956 2520.755
2803200.000 113765.148 12164.949
2802600.000 110665.223 2561.238
2780600.000 70326.305 12126.878
2781800.000 57139.232 2524.713
2775900.000 43419.591 12180.034
2757500.000 44058.087 12410.075
2759600.000 47216.960 12330.898
2760400.000 36719.645 12560.861
2765500.000 35203.694 12152.643
2767400.000 39483.851 12194.558
2770400.000 32919.851 12113.795
2772300.000 37865.369 12167.813
2763500.000 30040.025 2520.640
2758200.000 31894.106 3044.671
2768500.000 27860.899 12026.987
2691100.000 -121054.395 2501.404
2692800.000 -116658.651 12266.513
2694600.000 -112156.012 12221.972
2696600.000 -107101.450 2497.704
2698500.000 -102598.809 2492.677
2700300.000 -98205.242 12043.284
2702100.000 -93480.087 2540.101
2704100.000 -88868.367 12140.242
2705900.000 -84143.210 2485.994
2707800.000 -79420.232 2529.859
2709700.000 -74806.330 2470.277
2711500.000 -70412.760 2437.377
2713600.000 -65249.114 2421.546
2715400.000 -60746.466 2532.140
2717200.000 -56241.637 2624.079
2726500.000 -33172.099 11993.418
2728400.000 -28449.113 12079.080
2730300.000 -23723.946 2597.493
2732100.000 -18998.778 12206.117
2734000.000 -14384.866 2598.686
2735900.000 -9661.877 12172.139
2806400.000 106300.229 1988.416
2808100.000 111365.733 1799.159
2810100.000 116086.575 2493.370
2812200.000 121470.599 12121.601
2814100.000 126193.621 2515.998
2818100.000 136638.797 2345.030
2819900.000 141141.488 2496.110
2821900.000 146196.104 12055.406
2823900.000 151141.644 11968.505
2814000.000 155050.396 2581.839
2812400.000 150203.046 12143.010
2809800.000 144613.938 2511.547
2807400.000 123198.115 12142.972
2815700.000 130929.716 12128.619
2870500.000 111096.379 11807.321
2869800.000 105437.550 11817.214
2869200.000 99220.262 2219.183
2866800.000 78251.615 2220.412
2866200.000 72256.840 11770.249
2965400.000 102124.151 4637.449
2969500.000 105324.736 14051.626
2973600.000 107857.787 4233.084
3007700.000 83617.888 2305.798
3005500.000 78011.259 11890.316
3008900.000 88364.926 11906.810
3011200.000 93297.491 2500.192
3013200.000 98354.367 2403.368
3015100.000 103745.014 12032.620
2993300.000 118980.738 12523.924
2990800.000 116951.728 12924.933
2987300.000 107269.965 12640.849
2986200.000 101960.123 2965.907
2985100.000 96654.633 12548.802
2984500.000 90768.925 2675.847
2941000.000 117006.520 14110.866
2971800.000 114714.065 3927.365
2974300.000 115072.042 3846.049
2972600.000 118472.843 13189.076
2979700.000 120567.673 3024.768
2980100.000 122334.719 2714.419
2983200.000 120332.380 12463.819
2969000.000 127730.793 2713.243
2961300.000 119423.035 13495.512
2958900.000 124516.627 3560.033
2956100.000 129738.889 3242.421
2944300.000 131149.386 3929.592
2939400.000 128980.605 4397.660
2937600.000 132383.597 4069.642
2925200.000 131588.609 3749.258
2907900.000 133747.057 12242.682
2909700.000 138810.421 2648.899
2913400.000 148149.647 2665.155
2916500.000 150604.045 12418.887
3001100.000 114256.324 3045.594
3002200.000 115665.669 2816.267
3000100.000 116184.672 2855.542
2989200.000 120125.658 12612.585
2969900.000 115560.323 3932.055
2924200.000 138418.785 13021.299
2928500.000 144171.698 12475.001
2930800.000 144093.331 2793.831
2920300.000 134096.971 13087.784
2088100.000 187185.799 5005.000
2099600.000 390705.688 2188.000
3166600.000 103390.282 3280.000
2939700.000 310933.258 2676.000
2506800.000 230296.722 2846.000
2489000.000 179193.199 4713.696
2660400.000 -219572.647 2420.000
2543300.000 38868.462 2930.000
2862800.000 341146.851 2561.667
2589900.000 280319.168 10520.000
2573700.000 351417.618 14630.000
2308100.000 333087.830 2411.667
2235500.000 332620.636 3341.667
2387700.000 360694.351 2448.000
2377200.000 300990.891 2910.000
2304900.000 319927.551 2153.125
2351700.000 296959.366 5038.000
2179800.000 460330.750 1925.000
2184500.000 345932.373 2340.000
2278600.000 330577.438 2911.875
2305300.000 321307.816 0.000
2239300.000 383713.974 2277.000
2189800.000 320211.884 2355.000
2453200.000 141689.568 4047.500
2436400.000 147801.880 5287.143
2372500.000 277486.572 3553.000
2225100.000 222470.551 2166.667
2247600.000 175421.127 2090.000
2282200.000 311905.212 7844.000
2277800.000 301837.769 4020.000
2381600.000 378088.791 0.000
2397400.000 394548.889 8300.246
2200500.000 286291.443 3366.667
2463900.000 140289.932 2426.250
2290000.000 141425.537 3224.062
2285700.000 311866.150 2904.375
2236800.000 179221.756 2380.000
2344600.000 221235.992 2435.417
2594500.000 236262.894 4538.125
2977500.000 299141.327 2731.000
2827200.000 303506.348 5030.179
2666100.000 -851874.146 2491.000
2654300.000 -742219.299 2514.000
2665600.000 -215025.475 2420.000
2514700.000 108090.889 4407.500
2516500.000 88116.959 0.000
3169700.000 110912.384 5816.000
2856500.000 336647.079 0.000
2818000.000 301191.956 4447.667
3007800.000 284848.633 2749.000
2799700.000 256472.038 7420.000
2569300.000 152233.292 8049.167
2840100.000 342426.956 2200.454
2288700.000 266260.178 12978.461
2359900.000 245155.884 2445.000
2610700.000 267772.125 5782.800
2582300.000 -111061.909 0.000
2555800.000 -125092.453 21780.001
2581900.000 -4934.068 0.000
2581000.000 344640.778 1500.000
2573500.000 357927.460 1500.000
2277700.000 267078.979 2874.000
2241600.000 173004.059 4854.000
2236700.000 270221.466 2360.714
2001700.000 224739.845 1500.000
2565100.000 357039.536 17719.999
2388500.000 358230.331 0.000
2263500.000 313746.307 2217.000
2229800.000 342746.796 2490.000
2400100.000 353196.487 2730.000
2376600.000 373125.427 2557.143
2329700.000 357221.039 2334.000
2274800.000 302433.121 2748.000
2236200.000 280956.360 2115.000
2936200.000 299367.844 0.000
2203500.000 355884.613 2435.000
2144400.000 456611.450 4311.000
2343000.000 380102.158 2443.571
2192900.000 421295.685 0.000
2378800.000 379070.023 2872.143
2221700.000 222760.361 2145.000
2235600.000 330125.610 2888.333
2144000.000 475872.086 2837.000
2599700.000 -50754.725 2223.000
2521300.000 74162.209 0.000
2368300.000 261960.785 3995.000
2345300.000 332351.990 2634.000
2285500.000 299522.400 2929.000
2562700.000 -16120.785 0.000
2194600.000 433045.776 4137.037
2400300.000 366239.883 2956.667
2370000.000 270014.923 3616.539
2169900.000 415416.153 2318.000
2560600.000 121522.102 1996.000
2143400.000 466113.159 2271.000
2373100.000 382943.573 2606.000
2325800.000 274283.478 14370.000
2189000.000 303618.256 3418.000
2196900.000 422364.136 2769.643
2390900.000 357305.023 0.000
2528800.000 44892.445 2515.000
2314800.000 361673.828 2043.125
2205400.000 364426.178 0.000
2312500.000 145318.718 0.000
2300200.000 301027.252 1973.500
2194500.000 455732.880 2174.375
2185400.000 454162.872 2238.333
2216800.000 434013.519 1736.364
2552800.000 356414.795 1500.000
2570500.000 358612.671 1500.000
2239400.000 391113.647 2022.857
2260300.000 288926.392 2113.000
2204800.000 277403.671 2216.250
2608200.000 -21908.371 2185.000
2642700.000 390550.262 8555.000
2681200.000 323970.322 1500.000
2587000.000 259976.768 3130.000
2221900.000 377168.228 2190.000
2535900.000 280336.548 0.000
2655700.000 -851775.208 2509.000
2662000.000 -808506.439 2455.000
2658300.000 -793715.515 2489.000
2073100.000 327796.417 3330.000
2099300.000 316801.849 3690.000
2196900.000 352704.559 0.000
2230900.000 341929.230 3111.786
2207200.000 239896.835 2230.625
2248800.000 142433.838 2420.000
2367000.000 289980.316 0.000
2391900.000 323561.005 2343.000
2270900.000 298522.308 4364.000
2267000.000 227983.109 3073.235
2254500.000 208572.250 2814.286
2210800.000 297441.650 2385.000
2212500.000 241099.182 2230.714
2448300.000 133350.616 4613.611
2449100.000 162367.508 10260.000
2440000.000 162624.298 10188.000
2219000.000 379443.222 2677.143
2074700.000 242457.718 3315.000
3166100.000 113833.313 3100.000
3172200.000 94378.841 2851.000
2841100.000 285844.513 4217.000
2846900.000 325861.053 2785.000
2500000.000 109666.260 8008.928
2935200.000 275071.922 7131.072
2559400.000 136695.480 1996.000
2525300.000 57182.842 7580.112
2595100.000 400338.120 2392.000
3171100.000 90783.585 3261.923
2851700.000 337435.669 3361.000
2788600.000 307407.990 4736.091
2532200.000 53834.724 9246.875
2524400.000 94951.866 2375.000
2863500.000 317309.586 3375.000
3243700.000 59729.950 3274.000
2532200.000 293066.040 0.000
2641200.000 -739765.381 2449.000
2675600.000 -788890.930 2490.000
2655000.000 -809199.951 2529.000
2659600.000 -789484.131 2493.000
2665300.000 -793706.085 2509.000
2655800.000 -838033.386 2539.000
2660200.000 -812771.667 2390.000
2826300.000 368359.116 4285.000
2609900.000 -58766.081 5751.000
2547400.000 33775.527 21598.000
2586100.000 -54592.905 0.000
2584900.000 -150110.428 10255.435
2301200.000 145778.091 29307.501
2268800.000 309733.276 2237.000
2569800.000 39216.461 10797.857
2307000.000 286875.580 14204.184
2609700.000 -117162.170 0.000
2664200.000 -821923.157 2488.000
2655800.000 -804720.184 2500.000
2658900.000 -738591.187 2467.000
2643100.000 -743775.208 2478.000
2583700.000 -67969.139 21780.001
2705600.000 -139171.875 2460.000
1988900.000 -507600.044 14269.872
1983000.000 -503212.881 4440.489
1982100.000 -496360.168 14105.139
